  Кинетическая: Потенциальная:      Полная:

       0.100063   -1.09954e-29       0.100063
       0.100063   -1.12178e-29       0.100063
       0.100062   -1.14618e-29       0.100062
       0.100061   -1.17289e-29       0.100061
       0.100061   -1.20206e-29       0.100061
        0.10006   -1.23386e-29        0.10006
        0.10006   -1.26849e-29        0.10006
       0.100059   -1.30617e-29       0.100059
       0.100058   -1.34714e-29       0.100058
       0.100058   -1.39167e-29       0.100058
       0.100057   -1.44006e-29       0.100057
       0.100057   -1.49266e-29       0.100057
       0.100056   -1.54984e-29       0.100056
       0.100056   -1.61203e-29       0.100056
       0.100055   -1.67971e-29       0.100055
       0.100054   -1.75342e-29       0.100054
       0.100054   -1.83377e-29       0.100054
       0.100053   -1.92145e-29       0.100053
       0.100053   -2.01721e-29       0.100053
       0.100052   -2.12196e-29       0.100052
       0.100052   -2.23668e-29       0.100052
       0.100051   -2.36252e-29       0.100051
       0.100051   -2.50077e-29       0.100051
        0.10005    -2.6529e-29        0.10005
        0.10005   -2.82064e-29        0.10005
       0.100049   -3.00592e-29       0.100049
       0.100049   -3.21101e-29       0.100049
       0.100048   -3.43852e-29       0.100048
       0.100048   -3.69148e-29       0.100048
       0.100047    -3.9734e-29       0.100047
       0.100047    -4.2884e-29       0.100047
       0.100046    -4.6413e-29       0.100046
       0.100046   -5.03777e-29       0.100046
       0.100045    -5.4845e-29       0.100045
       0.100045   -5.98941e-29       0.100045
       0.100045   -6.56194e-29       0.100045
       0.100044   -7.21336e-29       0.100044
       0.100044   -7.95719e-29       0.100044
       0.100043   -8.80976e-29       0.100043
       0.100043   -9.79083e-29       0.100043
       0.100042   -1.09245e-28       0.100042
       0.100042   -1.22402e-28       0.100042
       0.100041   -1.37744e-28       0.100041
       0.100041    -1.5572e-28       0.100041
       0.100041   -1.76893e-28       0.100041
        0.10004   -2.01966e-28        0.10004
        0.10004   -2.31832e-28        0.10004
       0.100039   -2.67625e-28       0.100039
       0.100039   -3.10804e-28       0.100039
       0.100039   -3.63256e-28       0.100039
       0.100038   -4.27445e-28       0.100038
       0.100038   -5.06625e-28       0.100038
       0.100038   -6.05128e-28       0.100038
       0.100037   -7.28792e-28       0.100037
       0.100037   -8.85573e-28       0.100037
       0.100036   -1.08646e-27       0.100036
       0.100036   -1.34681e-27       0.100036
       0.100036   -1.68847e-27       0.100036
       0.100035   -2.14293e-27       0.100035
       0.100035   -2.75649e-27       0.100035
       0.100035   -3.59842e-27       0.100035
       0.100034   -4.77473e-27       0.100034
       0.100034   -6.45129e-27       0.100034
       0.100034   -8.89468e-27       0.100034
       0.100033   -1.25458e-26       0.100033
       0.100033   -1.81581e-26       0.100033
       0.100033   -2.70681e-26       0.100033
       0.100032   -4.17489e-26       0.100032
       0.100032   -6.70075e-26       0.100032
       0.100032   -1.12739e-25       0.100032
       0.100031   -2.00752e-25       0.100031
       0.100031   -3.83226e-25       0.100031
       0.100031   -7.98332e-25       0.100031
        0.10003   -1.86203e-24        0.10003
        0.10003   -5.05579e-24        0.10003
        0.10003   -1.70274e-23        0.10003
       0.100029   -7.97262e-23       0.100029
       0.100029    -6.4071e-22       0.100029
       0.100029   -1.60321e-20       0.100029
       0.100029   -2.70824e-17       0.100029
       0.100028   -2.90146e-18       0.100028
       0.100028   -7.67199e-21       0.100028
       0.100028   -4.11879e-22       0.100028
       0.100027   -5.92543e-23       0.100027
       0.100027   -1.39236e-23       0.100027
       0.100027   -4.39292e-24       0.100027
       0.100027   -1.68745e-24       0.100027
       0.100026   -7.46246e-25       0.100026
       0.100026    -3.6686e-25       0.100026
       0.100026   -1.95854e-25       0.100026
       0.100026   -1.11703e-25       0.100026
       0.100025   -6.72536e-26       0.100025
       0.100025    -4.2364e-26       0.100025
       0.100025   -2.77277e-26       0.100025
       0.100025   -1.87548e-26       0.100025
       0.100024    -1.3053e-26       0.100024
       0.100024   -9.31477e-27       0.100024
       0.100024   -6.79576e-27       0.100024
       0.100024   -5.05656e-27       0.100024
       0.100023   -3.82945e-27       0.100023
       0.100023   -2.94666e-27       0.100023
       0.100023   -2.30033e-27       0.100023
       0.100023   -1.81952e-27       0.100023
       0.100022   -1.45662e-27       0.100022
       0.100022   -1.17906e-27       0.100022
       0.100022   -9.64157e-28       0.100022
       0.100022   -7.95895e-28       0.100022
       0.100022   -6.62773e-28       0.100022
       0.100021   -5.56434e-28       0.100021
       0.100021   -4.70725e-28       0.100021
       0.100021   -4.01065e-28       0.100021
       0.100021   -3.44005e-28       0.100021
       0.100021   -2.96924e-28       0.100021
        0.10002    -2.5781e-28        0.10002
        0.10002   -2.25106e-28        0.10002
        0.10002   -1.97594e-28        0.10002
        0.10002   -1.74318e-28        0.10002
        0.10002   -1.54519e-28        0.10002
       0.100019   -1.37592e-28       0.100019
       0.100019   -1.23051e-28       0.100019
       0.100019   -1.10501e-28       0.100019
       0.100019   -9.96239e-29       0.100019
       0.100019   -9.01571e-29       0.100019
       0.100018   -8.18857e-29       0.100018
       0.100018    -7.4632e-29       0.100018
       0.100018   -6.82482e-29       0.100018
       0.100018   -6.26112e-29       0.100018
       0.100018   -5.76177e-29       0.100018
       0.100017   -5.31809e-29       0.100017
       0.100017   -4.92273e-29       0.100017
       0.100017   -4.56946e-29       0.100017
       0.100017   -4.25297e-29       0.100017
       0.100017   -3.96875e-29       0.100017
       0.100017   -3.71289e-29       0.100017
       0.100016   -3.48206e-29       0.100016
       0.100016   -3.27337e-29       0.100016
       0.100016   -3.08433e-29       0.100016
       0.100016   -2.91276e-29       0.100016
       0.100016   -2.75678e-29       0.100016
       0.100016   -2.61475e-29       0.100016
       0.100015   -2.48523e-29       0.100015
       0.100015   -2.36694e-29       0.100015
       0.100015   -2.25879e-29       0.100015
       0.100015   -2.15979e-29       0.100015
       0.100015   -2.06907e-29       0.100015
       0.100015   -1.98588e-29       0.100015
       0.100015   -1.90954e-29       0.100015
       0.100014   -1.83944e-29       0.100014
       0.100014   -1.77506e-29       0.100014
       0.100014   -1.71591e-29       0.100014
       0.100014   -1.66157e-29       0.100014
       0.100014   -1.61167e-29       0.100014
       0.100014   -1.56586e-29       0.100014
       0.100014   -1.52385e-29       0.100014
       0.100013   -1.48536e-29       0.100013
       0.100013   -1.45016e-29       0.100013
       0.100013   -1.41803e-29       0.100013
       0.100013   -1.38877e-29       0.100013
       0.100013   -1.36221e-29       0.100013
       0.100013   -1.33821e-29       0.100013
       0.100013   -1.31663e-29       0.100013
       0.100013   -1.29734e-29       0.100013
       0.100012   -1.28024e-29       0.100012
       0.100012   -1.26525e-29       0.100012
       0.100012   -1.25227e-29       0.100012
       0.100012   -1.24125e-29       0.100012
       0.100012   -1.23212e-29       0.100012
       0.100012   -1.22483e-29       0.100012
       0.100012   -1.21936e-29       0.100012
       0.100012   -1.21567e-29       0.100012
       0.100011   -1.21374e-29       0.100011
       0.100011   -1.21356e-29       0.100011
       0.100011   -1.21514e-29       0.100011
       0.100011   -1.21848e-29       0.100011
       0.100011    -1.2236e-29       0.100011
       0.100011   -1.23052e-29       0.100011
       0.100011   -1.23927e-29       0.100011
       0.100011   -1.24992e-29       0.100011
       0.100011    -1.2625e-29       0.100011
        0.10001   -1.27708e-29        0.10001
        0.10001   -1.29375e-29        0.10001
        0.10001    -1.3126e-29        0.10001
        0.10001   -1.33371e-29        0.10001
        0.10001   -1.35722e-29        0.10001
        0.10001   -1.38325e-29        0.10001
        0.10001   -1.41195e-29        0.10001
        0.10001    -1.4435e-29        0.10001
        0.10001   -1.47807e-29        0.10001
        0.10001   -1.51588e-29        0.10001
       0.100009   -1.55716e-29       0.100009
       0.100009   -1.60219e-29       0.100009
       0.100009   -1.65124e-29       0.100009
       0.100009   -1.70466e-29       0.100009
       0.100009   -1.76281e-29       0.100009
       0.100009   -1.82611e-29       0.100009
       0.100009   -1.89502e-29       0.100009
       0.100009   -1.97006e-29       0.100009
       0.100009   -2.05182e-29       0.100009
       0.100009   -2.14096e-29       0.100009
       0.100009   -2.23823e-29       0.100009
       0.100008   -2.34447e-29       0.100008
       0.100008   -2.46064e-29       0.100008
       0.100008    -2.5878e-29       0.100008
       0.100008   -2.72721e-29       0.100008
       0.100008   -2.88025e-29       0.100008
       0.100008   -3.04853e-29       0.100008
       0.100008    -3.2339e-29       0.100008
       0.100008   -3.43844e-29       0.100008
       0.100008   -3.66459e-29       0.100008
       0.100008   -3.91516e-29       0.100008
       0.100008   -4.19338e-29       0.100008
       0.100008   -4.50302e-29       0.100008
       0.100008   -4.84848e-29       0.100008
       0.100007    -5.2349e-29       0.100007
       0.100007    -5.6683e-29       0.100007
       0.100007   -6.15578e-29       0.100007
       0.100007   -6.70574e-29       0.100007
       0.100007   -7.32815e-29       0.100007
       0.100007   -8.03489e-29       0.100007
       0.100007    -8.8402e-29       0.100007
       0.100007   -9.76119e-29       0.100007
       0.100007   -1.08186e-28       0.100007
       0.100007   -1.20375e-28       0.100007
       0.100007   -1.34486e-28       0.100007
       0.100007   -1.50896e-28       0.100007
       0.100007   -1.70072e-28       0.100007
       0.100007   -1.92591e-28       0.100007
       0.100006    -2.1918e-28       0.100006
       0.100006   -2.50749e-28       0.100006
       0.100006   -2.88458e-28       0.100006
       0.100006   -3.33788e-28       0.100006
       0.100006   -3.88648e-28       0.100006
       0.100006   -4.55522e-28       0.100006
       0.100006    -5.3767e-28       0.100006
       0.100006   -6.39414e-28       0.100006
       0.100006   -7.66548e-28       0.100006
       0.100006   -9.26921e-28       0.100006
       0.100006    -1.1313e-27       0.100006
       0.100006   -1.39466e-27       0.100006
       0.100006   -1.73812e-27       0.100006
       0.100006   -2.19191e-27       0.100006
       0.100006   -2.80009e-27       0.100006
       0.100006   -3.62799e-27       0.100006
       0.100006   -4.77457e-27       0.100006
       0.100005   -6.39301e-27       0.100005
       0.100005   -8.72645e-27       0.100005
       0.100005   -1.21715e-26       0.100005
       0.100005   -1.73958e-26       0.100005
       0.100005   -2.55628e-26       0.100005
       0.100005   -3.87829e-26       0.100005
       0.100005   -6.10645e-26       0.100005
       0.100005   -1.00439e-25       0.100005
       0.100005   -1.74045e-25       0.100005
       0.100005   -3.21327e-25       0.100005
       0.100005   -6.41821e-25       0.100005
       0.100005   -1.41735e-24       0.100005
       0.100005    -3.5735e-24       0.100005
       0.100005   -1.08202e-23       0.100005
       0.100005    -4.2907e-23       0.100005
       0.100005   -2.57312e-22       0.100005
       0.100005   -3.34614e-21       0.100005
       0.100005   -3.24631e-19       0.100005
       0.100005   -3.70458e-14       0.100005
       0.100005   -7.13805e-20       0.100005
       0.100004   -1.57379e-21       0.100004
       0.100004   -1.55676e-22       0.100004
       0.100004   -2.99343e-23       0.100004
       0.100004   -8.33584e-24       0.100004
       0.100004   -2.94069e-24       0.100004
       0.100004   -1.22264e-24       0.100004
       0.100004   -5.73611e-25       0.100004
       0.100004   -2.95232e-25       0.100004
       0.100004   -1.63508e-25       0.100004
       0.100004   -9.61027e-26       0.100004
       0.100004   -5.93341e-26       0.100004
       0.100004   -3.81821e-26       0.100004
       0.100004   -2.54545e-26       0.100004
       0.100004   -1.74956e-26       0.100004
       0.100004   -1.23498e-26       0.100004
       0.100004   -8.92433e-27       0.100004
       0.100004   -6.58461e-27       0.100004
       0.100004    -4.9495e-27       0.100004
       0.100004   -3.78317e-27       0.100004
       0.100004   -2.93575e-27       0.100004
       0.100004   -2.30969e-27       0.100004
       0.100004   -1.84009e-27       0.100004
       0.100004   -1.48295e-27       0.100004
       0.100004   -1.20786e-27       0.100004
       0.100004   -9.93484e-28       0.100004
       0.100003   -8.24609e-28       0.100003
       0.100003   -6.90243e-28       0.100003
       0.100003    -5.8234e-28       0.100003
       0.100003   -4.94936e-28       0.100003
       0.100003   -4.23564e-28       0.100003
       0.100003   -3.64844e-28       0.100003
       0.100003   -3.16191e-28       0.100003
       0.100003   -2.75611e-28       0.100003
       0.100003   -2.41552e-28       0.100003
       0.100003     -2.128e-28       0.100003
       0.100003   -1.88392e-28       0.100003
       0.100003   -1.67563e-28       0.100003
       0.100003   -1.49702e-28       0.100003
       0.100003   -1.34312e-28       0.100003
       0.100003   -1.20994e-28       0.100003
       0.100003    -1.0942e-28       0.100003
       0.100003   -9.93207e-29       0.100003
       0.100003    -9.0476e-29       0.100003
       0.100003   -8.27017e-29       0.100003
       0.100003   -7.58449e-29       0.100003
       0.100003   -6.97779e-29       0.100003
       0.100003    -6.4393e-29       0.100003
       0.100003   -5.95996e-29       0.100003
       0.100003    -5.5321e-29       0.100003
       0.100003   -5.14918e-29       0.100003
       0.100003   -4.80563e-29       0.100003
       0.100003   -4.49668e-29       0.100003
       0.100003   -4.21822e-29       0.100003
       0.100003   -3.96673e-29       0.100003
       0.100003   -3.73915e-29       0.100003
       0.100003   -3.53284e-29       0.100003
       0.100003   -3.34548e-29       0.100003
       0.100003   -3.17508e-29       0.100003
       0.100002   -3.01988e-29       0.100002
       0.100002   -2.87834e-29       0.100002
       0.100002   -2.74911e-29       0.100002
       0.100002     -2.631e-29       0.100002
       0.100002   -2.52298e-29       0.100002
       0.100002   -2.42411e-29       0.100002
       0.100002   -2.33357e-29       0.100002
       0.100002   -2.25064e-29       0.100002
       0.100002   -2.17468e-29       0.100002
       0.100002   -2.10511e-29       0.100002
       0.100002   -2.04143e-29       0.100002
       0.100002   -1.98318e-29       0.100002
       0.100002   -1.92995e-29       0.100002
       0.100002   -1.88139e-29       0.100002
       0.100002   -1.83717e-29       0.100002
       0.100002   -1.79701e-29       0.100002
       0.100002   -1.76065e-29       0.100002
       0.100002   -1.72787e-29       0.100002
       0.100002   -1.69847e-29       0.100002
       0.100002   -1.67226e-29       0.100002
       0.100002   -1.64908e-29       0.100002
       0.100002   -1.62881e-29       0.100002
       0.100002   -1.61131e-29       0.100002
       0.100002   -1.59648e-29       0.100002
       0.100002   -1.58424e-29       0.100002
       0.100002   -1.57449e-29       0.100002
       0.100002   -1.56719e-29       0.100002
       0.100002   -1.56228e-29       0.100002
       0.100002   -1.55972e-29       0.100002
       0.100002   -1.55947e-29       0.100002
       0.100002   -1.56154e-29       0.100002
       0.100002    -1.5659e-29       0.100002
       0.100002   -1.57256e-29       0.100002
       0.100002   -1.58155e-29       0.100002
       0.100002   -1.59289e-29       0.100002
       0.100002   -1.60662e-29       0.100002
       0.100002    -1.6228e-29       0.100002
       0.100002    -1.6415e-29       0.100002
       0.100002    -1.6628e-29       0.100002
       0.100002    -1.6868e-29       0.100002
       0.100002   -1.71361e-29       0.100002
       0.100002   -1.74336e-29       0.100002
       0.100002   -1.77622e-29       0.100002
       0.100002   -1.81234e-29       0.100002
       0.100002   -1.85195e-29       0.100002
       0.100002   -1.89524e-29       0.100002
       0.100002    -1.9425e-29       0.100002
       0.100002   -1.99399e-29       0.100002
       0.100002   -2.05005e-29       0.100002
       0.100002   -2.11105e-29       0.100002
       0.100002   -2.17739e-29       0.100002
       0.100001   -2.24953e-29       0.100001
       0.100001   -2.32802e-29       0.100001
       0.100001   -2.41341e-29       0.100001
       0.100001   -2.50639e-29       0.100001
       0.100001   -2.60768e-29       0.100001
       0.100001   -2.71815e-29       0.100001
       0.100001   -2.83874e-29       0.100001
       0.100001   -2.97053e-29       0.100001
       0.100001   -3.11476e-29       0.100001
       0.100001   -3.27279e-29       0.100001
       0.100001   -3.44623e-29       0.100001
       0.100001    -3.6369e-29       0.100001
       0.100001   -3.84685e-29       0.100001
       0.100001   -4.07845e-29       0.100001
       0.100001   -4.33447e-29       0.100001
       0.100001   -4.61803e-29       0.100001
       0.100001    -4.9328e-29       0.100001
       0.100001     -5.283e-29       0.100001
       0.100001   -5.67356e-29       0.100001
       0.100001   -6.11025e-29       0.100001
       0.100001   -6.59982e-29       0.100001
       0.100001    -7.1502e-29       0.100001
       0.100001   -7.77082e-29       0.100001
       0.100001   -8.47276e-29       0.100001
       0.100001   -9.26932e-29       0.100001
       0.100001   -1.01763e-28       0.100001
       0.100001   -1.12129e-28       0.100001
       0.100001    -1.2402e-28       0.100001
       0.100001   -1.37716e-28       0.100001
       0.100001   -1.53557e-28       0.100001
       0.100001   -1.71962e-28       0.100001
       0.100001   -1.93447e-28       0.100001
       0.100001   -2.18653e-28       0.100001
       0.100001   -2.48379e-28       0.100001
       0.100001   -2.83634e-28       0.100001
       0.100001   -3.25694e-28       0.100001
       0.100001   -3.76189e-28       0.100001
       0.100001   -4.37218e-28       0.100001
       0.100001   -5.11509e-28       0.100001
       0.100001   -6.02634e-28       0.100001
       0.100001   -7.15325e-28       0.100001
       0.100001   -8.55909e-28       0.100001
       0.100001   -1.03295e-27       0.100001
       0.100001   -1.25816e-27       0.100001
       0.100001   -1.54782e-27       0.100001
       0.100001   -1.92482e-27       0.100001
       0.100001   -2.42185e-27       0.100001
       0.100001   -3.08646e-27       0.100001
       0.100001   -3.98896e-27       0.100001
       0.100001   -5.23554e-27       0.100001
       0.100001   -6.99008e-27       0.100001
       0.100001   -9.51178e-27       0.100001
       0.100001    -1.3222e-26       0.100001
       0.100001   -1.88267e-26       0.100001
       0.100001   -2.75507e-26       0.100001
       0.100001   -4.16041e-26       0.100001
       0.100001   -6.51587e-26       0.100001
       0.100001   -1.06515e-25       0.100001
       0.100001   -1.83239e-25       0.100001
       0.100001   -3.35359e-25       0.100001
       0.100001   -6.62673e-25       0.100001
       0.100001   -1.44347e-24       0.100001
       0.100001   -3.57382e-24       0.100001
       0.100001   -1.05497e-23       0.100001
       0.100001   -3.95594e-23       0.100001
       0.100001   -2.16029e-22       0.100001
       0.100001   -2.32537e-21       0.100001
       0.100001   -1.25987e-19       0.100001
       0.100001   -4.63742e-12       0.100001
       0.100001   -2.52675e-19       0.100001
       0.100001   -3.29227e-21       0.100001
       0.100001   -2.72371e-22       0.100001
       0.100001   -4.70691e-23       0.100001
       0.100001      -1.23e-23       0.100001
       0.100001   -4.16049e-24       0.100001
       0.100001   -1.67906e-24       0.100001
       0.100001   -7.70523e-25       0.100001
       0.100001   -3.89899e-25       0.100001
       0.100001    -2.1306e-25       0.100001
       0.100001    -1.2388e-25       0.100001
       0.100001   -7.58091e-26       0.100001
       0.100001   -4.84263e-26       0.100001
       0.100001   -3.20853e-26       0.100001
       0.100001   -2.19382e-26       0.100001
       0.100001    -1.5417e-26       0.100001
       0.100001   -1.10984e-26       0.100001
       0.100001    -8.1619e-27       0.100001
       0.100001   -6.11781e-27       0.100001
       0.100001   -4.66478e-27       0.100001
       0.100001   -3.61227e-27       0.100001
       0.100001   -2.83678e-27       0.100001
       0.100001   -2.25649e-27       0.100001
       0.100001   -1.81609e-27       0.100001
       0.100001   -1.47752e-27       0.100001
       0.100001   -1.21411e-27       0.100001
       0.100001   -1.00692e-27       0.100001
       0.100001   -8.42293e-28       0.100001
       0.100001   -7.10243e-28       0.100001
       0.100001   -6.03393e-28       0.100001
       0.100001   -5.16225e-28       0.100001
       0.100001   -4.44569e-28       0.100001
       0.100001   -3.85241e-28       0.100001
       0.100001    -3.3579e-28       0.100001
       0.100001    -2.9431e-28       0.100001
       0.100001    -2.5931e-28       0.100001
       0.100001   -2.29612e-28       0.100001
       0.100001   -2.04279e-28       0.100001
       0.100001   -1.82562e-28       0.100001
       0.100001   -1.63855e-28       0.100001
            0.1    -1.4767e-28            0.1
            0.1   -1.33608e-28            0.1
            0.1    -1.2134e-28            0.1
            0.1   -1.10597e-28            0.1
            0.1   -1.01156e-28            0.1
            0.1   -9.28289e-29            0.1
            0.1   -8.54618e-29            0.1
            0.1   -7.89233e-29            0.1
            0.1   -7.31033e-29            0.1
            0.1   -6.79084e-29            0.1
            0.1   -6.32593e-29            0.1
            0.1   -5.90882e-29            0.1
            0.1   -5.53372e-29            0.1
            0.1   -5.19566e-29            0.1
            0.1   -4.89035e-29            0.1
            0.1   -4.61407e-29            0.1
            0.1   -4.36362e-29            0.1
            0.1   -4.13619e-29            0.1
            0.1   -3.92937e-29            0.1
            0.1   -3.74102e-29            0.1
            0.1   -3.56927e-29            0.1
            0.1    -3.4125e-29            0.1
            0.1   -3.26926e-29            0.1
            0.1   -3.13828e-29            0.1
            0.1   -3.01845e-29            0.1
            0.1   -2.90877e-29            0.1
            0.1   -2.80836e-29            0.1
            0.1   -2.71646e-29            0.1
            0.1   -2.63235e-29            0.1
            0.1   -2.55544e-29            0.1
            0.1   -2.48517e-29            0.1
            0.1   -2.42106e-29            0.1
            0.1   -2.36268e-29            0.1
            0.1   -2.30964e-29            0.1
            0.1   -2.26159e-29            0.1
            0.1   -2.21824e-29            0.1
            0.1   -2.17932e-29            0.1
            0.1   -2.14459e-29            0.1
            0.1   -2.11385e-29            0.1
            0.1   -2.08691e-29            0.1
            0.1   -2.06363e-29            0.1
            0.1   -2.04385e-29            0.1
            0.1   -2.02748e-29            0.1
            0.1   -2.01442e-29            0.1
            0.1   -2.00461e-29            0.1
            0.1   -1.99797e-29            0.1
            0.1   -1.99449e-29            0.1
            0.1   -1.99414e-29            0.1
            0.1   -1.99691e-29            0.1
            0.1   -2.00283e-29            0.1
            0.1   -2.01193e-29            0.1
            0.1   -2.02425e-29            0.1
            0.1   -2.03987e-29            0.1
            0.1   -2.05887e-29            0.1
            0.1   -2.08136e-29            0.1
            0.1   -2.10747e-29            0.1
            0.1   -2.13735e-29            0.1
            0.1   -2.17118e-29            0.1
            0.1   -2.20916e-29            0.1
            0.1   -2.25151e-29            0.1
            0.1   -2.29851e-29            0.1
            0.1   -2.35043e-29            0.1
            0.1   -2.40763e-29            0.1
            0.1   -2.47046e-29            0.1
            0.1   -2.53936e-29            0.1
            0.1   -2.61481e-29            0.1
            0.1   -2.69732e-29            0.1
            0.1   -2.78751e-29            0.1
            0.1   -2.88605e-29            0.1
            0.1    -2.9937e-29            0.1
            0.1   -3.11131e-29            0.1
            0.1   -3.23986e-29            0.1
            0.1   -3.38043e-29            0.1
            0.1   -3.53427e-29            0.1
            0.1   -3.70277e-29            0.1
            0.1   -3.88752e-29            0.1
            0.1   -4.09035e-29            0.1
            0.1   -4.31332e-29            0.1
            0.1   -4.55881e-29            0.1
            0.1   -4.82952e-29            0.1
            0.1   -5.12858e-29            0.1
            0.1   -5.45959e-29            0.1
            0.1   -5.82672e-29            0.1
            0.1    -6.2348e-29            0.1
            0.1   -6.68943e-29            0.1
            0.1   -7.19719e-29            0.1
            0.1   -7.76574e-29            0.1
            0.1   -8.40414e-29            0.1
            0.1   -9.12302e-29            0.1
            0.1   -9.93503e-29            0.1
            0.1   -1.08552e-28            0.1
            0.1   -1.19014e-28            0.1
            0.1   -1.30953e-28            0.1
            0.1   -1.44628e-28            0.1
            0.1   -1.60353e-28            0.1
            0.1   -1.78514e-28            0.1
            0.1   -1.99578e-28            0.1
            0.1   -2.24125e-28            0.1
            0.1   -2.52873e-28            0.1
            0.1   -2.86716e-28            0.1
            0.1   -3.26779e-28            0.1
            0.1   -3.74483e-28            0.1
            0.1   -4.31641e-28            0.1
            0.1   -5.00581e-28            0.1
            0.1   -5.84321e-28            0.1
            0.1   -6.86807e-28            0.1
            0.1   -8.13251e-28            0.1
            0.1   -9.70606e-28            0.1
            0.1   -1.16825e-27            0.1
            0.1     -1.419e-27            0.1
            0.1   -1.74057e-27            0.1
            0.1   -2.15781e-27            0.1
            0.1   -2.70612e-27            0.1
            0.1   -3.43671e-27            0.1
            0.1   -4.42508e-27            0.1
            0.1   -5.78469e-27            0.1
            0.1   -7.68982e-27            0.1
            0.1   -1.04146e-26            0.1
            0.1   -1.44021e-26            0.1
            0.1   -2.03898e-26            0.1
            0.1   -2.96477e-26            0.1
            0.1   -4.44478e-26            0.1
            0.1   -6.90385e-26            0.1
            0.1   -1.11778e-25            0.1
            0.1   -1.90126e-25            0.1
            0.1   -3.43248e-25            0.1
            0.1    -6.6694e-25            0.1
            0.1   -1.42203e-24            0.1
            0.1   -3.42271e-24            0.1
            0.1   -9.58107e-24            0.1
            0.1   -3.32173e-23            0.1
            0.1   -1.59681e-22            0.1
            0.1   -1.34703e-21            0.1
            0.1   -3.79668e-20            0.1
            0.1   -1.36479e-16            0.1
            0.1   -2.77674e-18            0.1
            0.1   -1.07786e-20            0.1
            0.1   -6.33932e-22            0.1
            0.1   -9.32382e-23            0.1
            0.1   -2.18614e-23            0.1
            0.1   -6.80425e-24            0.1
            0.1   -2.59094e-24            0.1
            0.1   -1.13913e-24            0.1
            0.1   -5.57808e-25            0.1
            0.1   -2.97016e-25            0.1
            0.1   -1.69116e-25            0.1
            0.1   -1.01722e-25            0.1
            0.1   -6.40495e-26            0.1
            0.1   -4.19216e-26            0.1
            0.1   -2.83657e-26            0.1
            0.1   -1.97548e-26            0.1
            0.1   -1.41098e-26            0.1
            0.1   -1.03053e-26            0.1
            0.1    -7.6777e-27            0.1
            0.1   -5.82282e-27            0.1
            0.1   -4.48753e-27            0.1
            0.1   -3.50914e-27            0.1
            0.1   -2.78068e-27            0.1
            0.1   -2.23032e-27            0.1
            0.1   -1.80895e-27            0.1
            0.1   -1.48233e-27            0.1
            0.1    -1.2263e-27            0.1
            0.1    -1.0235e-27            0.1
            0.1   -8.61283e-28            0.1
            0.1   -7.30369e-28            0.1
            0.1   -6.23824e-28            0.1
            0.1   -5.36432e-28            0.1
            0.1   -4.64223e-28            0.1
            0.1   -4.04148e-28            0.1
            0.1   -3.53845e-28            0.1
            0.1   -3.11468e-28            0.1
            0.1   -2.75564e-28            0.1
            0.1   -2.44979e-28            0.1
            0.1   -2.18794e-28            0.1
            0.1   -1.96266e-28            0.1
            0.1   -1.76797e-28            0.1
            0.1   -1.59898e-28            0.1
            0.1   -1.45171e-28            0.1
            0.1   -1.32286e-28            0.1
            0.1   -1.20972e-28            0.1
            0.1   -1.11003e-28            0.1
            0.1   -1.02189e-28            0.1
            0.1   -9.43721e-29            0.1
            0.1   -8.74195e-29            0.1
            0.1   -8.12179e-29            0.1
            0.1   -7.56717e-29            0.1
            0.1   -7.06991e-29            0.1
            0.1   -6.62304e-29            0.1
            0.1   -6.22055e-29            0.1
            0.1    -5.8573e-29            0.1
            0.1   -5.52882e-29            0.1
            0.1   -5.23126e-29            0.1
            0.1   -4.96126e-29            0.1
            0.1   -4.71592e-29            0.1
            0.1   -4.49267e-29            0.1
            0.1   -4.28929e-29            0.1
            0.1   -4.10382e-29            0.1
            0.1   -3.93455e-29            0.1
            0.1   -3.77995e-29            0.1
            0.1    -3.6387e-29            0.1
            0.1   -3.50961e-29            0.1
            0.1   -3.39164e-29            0.1
            0.1   -3.28386e-29            0.1
            0.1   -3.18545e-29            0.1
            0.1   -3.09568e-29            0.1
            0.1   -3.01391e-29            0.1
            0.1   -2.93957e-29            0.1
            0.1   -2.87213e-29            0.1
            0.1   -2.81116e-29            0.1
            0.1   -2.75625e-29            0.1
            0.1   -2.70705e-29            0.1
            0.1   -2.66325e-29            0.1
            0.1   -2.62458e-29            0.1
            0.1    -2.5908e-29            0.1
            0.1   -2.56172e-29            0.1
            0.1   -2.53715e-29            0.1
            0.1   -2.51696e-29            0.1
            0.1   -2.50102e-29            0.1
            0.1   -2.48925e-29            0.1
            0.1   -2.48157e-29            0.1
            0.1   -2.47795e-29            0.1
            0.1   -2.47836e-29            0.1
            0.1    -2.4828e-29            0.1
            0.1   -2.49131e-29            0.1
            0.1   -2.50392e-29            0.1
            0.1   -2.52071e-29            0.1
            0.1   -2.54179e-29            0.1
            0.1   -2.56726e-29            0.1
            0.1   -2.59728e-29            0.1
            0.1   -2.63203e-29            0.1
            0.1   -2.67172e-29            0.1
            0.1   -2.71659e-29            0.1
            0.1   -2.76693e-29            0.1
            0.1   -2.82303e-29            0.1
            0.1   -2.88528e-29            0.1
            0.1   -2.95408e-29            0.1
            0.1   -3.02989e-29            0.1
            0.1   -3.11323e-29            0.1
            0.1   -3.20469e-29            0.1
            0.1   -3.30493e-29            0.1
            0.1   -3.41471e-29            0.1
            0.1   -3.53485e-29            0.1
            0.1   -3.66631e-29            0.1
            0.1   -3.81016e-29            0.1
            0.1   -3.96761e-29            0.1
            0.1   -4.14003e-29            0.1
            0.1   -4.32897e-29            0.1
            0.1   -4.53619e-29            0.1
            0.1   -4.76372e-29            0.1
            0.1   -5.01382e-29            0.1
            0.1   -5.28913e-29            0.1
            0.1   -5.59265e-29            0.1
            0.1   -5.92782e-29            0.1
            0.1   -6.29861e-29            0.1
            0.1   -6.70961e-29            0.1
            0.1   -7.16614e-29            0.1
            0.1   -7.67437e-29            0.1
            0.1   -8.24152e-29            0.1
            0.1     -8.876e-29            0.1
            0.1   -9.58772e-29            0.1
            0.1   -1.03883e-28            0.1
            0.1   -1.12917e-28            0.1
            0.1   -1.23141e-28            0.1
            0.1   -1.34753e-28            0.1
            0.1   -1.47985e-28            0.1
            0.1   -1.63122e-28            0.1
            0.1   -1.80504e-28            0.1
            0.1   -2.00547e-28            0.1
            0.1    -2.2376e-28            0.1
            0.1   -2.50767e-28            0.1
            0.1   -2.82343e-28            0.1
            0.1   -3.19451e-28            0.1
            0.1   -3.63297e-28            0.1
            0.1   -4.15407e-28            0.1
            0.1   -4.77718e-28            0.1
            0.1   -5.52717e-28            0.1
            0.1   -6.43615e-28            0.1
            0.1   -7.54604e-28            0.1
            0.1   -8.91204e-28            0.1
            0.1   -1.06076e-27            0.1
            0.1   -1.27315e-27            0.1
            0.1   -1.54183e-27            0.1
            0.1   -1.88532e-27            0.1
            0.1   -2.32955e-27            0.1
            0.1   -2.91125e-27            0.1
            0.1   -3.68339e-27            0.1
            0.1   -4.72367e-27            0.1
            0.1    -6.1483e-27            0.1
            0.1   -8.13479e-27            0.1
            0.1   -1.09607e-26            0.1
            0.1   -1.50716e-26            0.1
            0.1   -2.12037e-26            0.1
            0.1   -3.06141e-26            0.1
            0.1   -4.55311e-26            0.1
            0.1   -7.00754e-26            0.1
            0.1   -1.12254e-25            0.1
            0.1   -1.88546e-25            0.1
            0.1   -3.35275e-25            0.1
            0.1   -6.39403e-25            0.1
            0.1   -1.33146e-24            0.1
            0.1   -3.07128e-24            0.1
            0.1   -8.11317e-24            0.1
            0.1   -2.58708e-23            0.1
            0.1   -1.09059e-22            0.1
            0.1   -7.26534e-22            0.1
            0.1   -1.18126e-20            0.1
            0.1   -2.54779e-18            0.1
            0.1   -3.11382e-16            0.1
            0.1   -5.45354e-20            0.1
            0.1   -1.81335e-21            0.1
            0.1   -2.09471e-22            0.1
            0.1   -4.29729e-23            0.1
            0.1   -1.22877e-23            0.1
            0.1   -4.36362e-24            0.1
            0.1   -1.82422e-24            0.1
            0.1   -8.59948e-25            0.1
            0.1   -4.44522e-25            0.1
            0.1   -2.47176e-25            0.1
            0.1   -1.45829e-25            0.1
            0.1   -9.03623e-26            0.1
            0.1   -5.83534e-26            0.1
            0.1   -3.90357e-26            0.1
            0.1   -2.69208e-26            0.1
            0.1   -1.90663e-26            0.1
            0.1   -1.38235e-26            0.1
            0.1   -1.02329e-26            0.1
            0.1   -7.71717e-27            0.1
            0.1   -5.91806e-27            0.1
            0.1   -4.60758e-27            0.1
            0.1   -3.63699e-27            0.1
            0.1   -2.90717e-27            0.1
            0.1   -2.35076e-27            0.1
            0.1   -1.92115e-27            0.1
            0.1   -1.58555e-27            0.1
            0.1   -1.32055e-27            0.1
            0.1    -1.1092e-27            0.1
            0.1   -9.39079e-28            0.1
            0.1   -8.00956e-28            0.1
            0.1    -6.8791e-28            0.1
            0.1    -5.9469e-28            0.1
            0.1   -5.17278e-28            0.1
            0.1   -4.52567e-28            0.1
            0.1   -3.98137e-28            0.1
            0.1   -3.52088e-28            0.1
            0.1   -3.12915e-28            0.1
            0.1   -2.79418e-28            0.1
            0.1   -2.50634e-28            0.1
            0.1   -2.25787e-28            0.1
            0.1   -2.04244e-28            0.1
            0.1   -1.85489e-28            0.1
            0.1   -1.69097e-28            0.1
            0.1   -1.54719e-28            0.1
            0.1   -1.42065e-28            0.1
            0.1    -1.3089e-28            0.1
            0.1   -1.20993e-28            0.1
            0.1   -1.12202e-28            0.1
            0.1   -1.04374e-28            0.1
            0.1   -9.73868e-29            0.1
            0.1   -9.11365e-29            0.1
            0.1   -8.55349e-29            0.1
            0.1   -8.05069e-29            0.1
            0.1   -7.59877e-29            0.1
            0.1   -7.19223e-29            0.1
            0.1   -6.82639e-29            0.1
            0.1   -6.49717e-29            0.1
            0.1   -6.20123e-29            0.1
            0.1   -5.93564e-29            0.1
            0.1   -5.69804e-29            0.1
            0.1   -5.48657e-29            0.1
            0.1   -5.29968e-29            0.1
            0.1   -5.13645e-29            0.1
            0.1   -4.99618e-29            0.1
            0.1   -4.87889e-29            0.1
            0.1   -4.78525e-29            0.1
            0.1   -4.71623e-29            0.1
            0.1   -4.67402e-29            0.1
            0.1   -4.66209e-29            0.1
            0.1   -4.68462e-29            0.1
            0.1   -4.74883e-29            0.1
            0.1   -4.86328e-29            0.1
            0.1   -5.04134e-29            0.1
            0.1   -5.30225e-29            0.1
            0.1   -5.67059e-29            0.1
            0.1   -6.18445e-29            0.1
            0.1   -6.90018e-29            0.1
            0.1   -7.89447e-29            0.1
            0.1   -9.29277e-29            0.1
            0.1   -1.12722e-28            0.1
            0.1   -1.41215e-28            0.1
            0.1   -1.83086e-28            0.1
            0.1   -2.45627e-28            0.1
            0.1   -3.41775e-28            0.1
            0.1   -4.93047e-28            0.1
            0.1    -7.3914e-28            0.1
            0.1   -1.15545e-27            0.1
            0.1   -1.88662e-27            0.1
            0.1   -3.23702e-27            0.1
            0.1   -5.88512e-27            0.1
            0.1   -1.14179e-26            0.1
            0.1   -2.40041e-26            0.1
            0.1   -5.54287e-26            0.1
            0.1    -1.4366e-25            0.1
            0.1   -4.27677e-25            0.1
            0.1    -1.4698e-24            0.1
            0.1   -5.51146e-24            0.1
            0.1   -1.71415e-23            0.1
            0.1     -2.468e-23            0.1
            0.1   -1.23278e-23            0.1
            0.1   -3.58221e-24            0.1
            0.1   -9.84912e-25            0.1
            0.1   -3.03336e-25            0.1
            0.1   -1.08223e-25            0.1
            0.1   -4.38818e-26            0.1
            0.1   -1.97763e-26            0.1
            0.1   -9.78854e-27            0.1
            0.1   -5.23331e-27            0.1
            0.1   -3.01034e-27            0.1
            0.1   -1.85182e-27            0.1
            0.1   -1.21447e-27            0.1
            0.1   -8.50049e-28            0.1
            0.1    -6.3171e-28            0.1
            0.1   -4.96685e-28            0.1
            0.1   -4.09824e-28            0.1
            0.1   -3.51686e-28            0.1
            0.1   -3.11892e-28            0.1
            0.1    -2.8383e-28            0.1
            0.1   -2.63919e-28            0.1
            0.1   -2.50233e-28            0.1
            0.1   -2.41369e-28            0.1
            0.1   -2.36811e-28            0.1
            0.1   -2.36064e-28            0.1
            0.1   -2.38984e-28            0.1
            0.1   -2.45569e-28            0.1
            0.1   -2.55827e-28            0.1
            0.1   -2.69976e-28            0.1
            0.1   -2.88304e-28            0.1
            0.1   -3.11267e-28            0.1
            0.1   -3.39467e-28            0.1
            0.1   -3.73718e-28            0.1
            0.1    -4.1507e-28            0.1
            0.1   -4.64884e-28            0.1
            0.1   -5.24907e-28            0.1
            0.1   -5.97394e-28            0.1
            0.1    -6.8525e-28            0.1
            0.1   -7.92252e-28            0.1
            0.1   -9.23345e-28            0.1
            0.1   -1.08504e-27            0.1
            0.1   -1.28602e-27            0.1
            0.1   -1.53797e-27            0.1
            0.1   -1.85675e-27            0.1
            0.1   -2.26429e-27            0.1
            0.1   -2.79116e-27            0.1
            0.1   -3.48071e-27            0.1
            0.1    -4.3954e-27            0.1
            0.1   -5.62678e-27            0.1
            0.1   -7.31167e-27            0.1
            0.1   -9.65889e-27            0.1
            0.1   -1.29947e-26            0.1
            0.1   -1.78425e-26            0.1
            0.1    -2.5066e-26            0.1
            0.1   -3.61393e-26            0.1
            0.1   -5.36719e-26            0.1
            0.1   -8.24854e-26            0.1
            0.1   -1.31938e-25            0.1
            0.1   -2.21267e-25            0.1
            0.1    -3.9282e-25            0.1
            0.1   -7.47835e-25            0.1
            0.1   -1.55424e-24            0.1
            0.1   -3.57616e-24            0.1
            0.1   -9.41481e-24            0.1
            0.1   -2.98763e-23            0.1
            0.1   -1.25008e-22            0.1
            0.1   -8.22044e-22            0.1
            0.1   -1.29928e-20            0.1
            0.1   -2.51336e-18            0.1
            0.1   -5.70193e-16            0.1
            0.1   -7.15449e-20            0.1
            0.1   -2.27776e-21            0.1
            0.1   -2.58651e-22            0.1
            0.1   -5.25793e-23            0.1
            0.1   -1.49491e-23            0.1
            0.1   -5.28815e-24            0.1
            0.1   -2.20523e-24            0.1
            0.1    -1.0379e-24            0.1
            0.1   -5.35974e-25            0.1
            0.1   -2.97858e-25            0.1
            0.1   -1.75686e-25            0.1
            0.1   -1.08861e-25            0.1
            0.1    -7.0312e-26            0.1
            0.1   -4.70508e-26            0.1
            0.1   -3.24632e-26            0.1
            0.1   -2.30045e-26            0.1
            0.1   -1.66896e-26            0.1
            0.1   -1.23636e-26            0.1
            0.1   -9.33144e-27            0.1
            0.1   -7.16214e-27            0.1
            0.1   -5.58127e-27            0.1
            0.1   -4.40982e-27            0.1
            0.1   -3.52849e-27            0.1
            0.1   -2.85617e-27            0.1
            0.1   -2.33674e-27            0.1
            0.1   -1.93072e-27            0.1
            0.1   -1.60991e-27            0.1
            0.1   -1.35387e-27            0.1
            0.1   -1.14764e-27            0.1
            0.1   -9.80073e-28            0.1
            0.1   -8.42832e-28            0.1
            0.1   -7.29578e-28            0.1
            0.1   -6.35458e-28            0.1
            0.1   -5.56722e-28            0.1
            0.1   -4.90446e-28            0.1
            0.1   -4.34331e-28            0.1
            0.1   -3.86557e-28            0.1
            0.1   -3.45674e-28            0.1
            0.1   -3.10517e-28            0.1
            0.1   -2.80142e-28            0.1
            0.1   -2.53785e-28            0.1
            0.1    -2.3082e-28            0.1
            0.1   -2.10733e-28            0.1
            0.1   -1.93097e-28            0.1
            0.1   -1.77559e-28            0.1
            0.1   -1.63825e-28            0.1
            0.1   -1.51648e-28            0.1
            0.1   -1.40819e-28            0.1
            0.1   -1.31163e-28            0.1
            0.1    -1.2253e-28            0.1
            0.1   -1.14793e-28            0.1
            0.1   -1.07844e-28            0.1
            0.1    -1.0159e-28            0.1
            0.1   -9.59502e-29            0.1
            0.1   -9.08553e-29            0.1
            0.1   -8.62457e-29            0.1
            0.1   -8.20694e-29            0.1
            0.1    -7.8281e-29            0.1
            0.1   -7.48412e-29            0.1
            0.1   -7.17155e-29            0.1
            0.1   -6.88736e-29            0.1
            0.1   -6.62891e-29            0.1
            0.1   -6.39386e-29            0.1
            0.1   -6.18016e-29            0.1
            0.1   -5.98601e-29            0.1
            0.1   -5.80981e-29            0.1
            0.1   -5.65016e-29            0.1
            0.1   -5.50581e-29            0.1
            0.1   -5.37568e-29            0.1
            0.1   -5.25881e-29            0.1
            0.1   -5.15435e-29            0.1
            0.1   -5.06156e-29            0.1
            0.1   -4.97979e-29            0.1
            0.1    -4.9085e-29            0.1
            0.1    -4.8472e-29            0.1
            0.1   -4.79549e-29            0.1
            0.1   -4.75302e-29            0.1
            0.1   -4.71952e-29            0.1
            0.1   -4.69478e-29            0.1
            0.1   -4.67864e-29            0.1
            0.1     -4.671e-29            0.1
            0.1   -4.67181e-29            0.1
            0.1   -4.68107e-29            0.1
            0.1   -4.69885e-29            0.1
